13.65845,1.124963,-20.96989,1,1,1
10.66684,1.124963,-44.94028,0.8,0.8,0.8
9.196569,1.124963,-49.05306,0.8,0.8,0.8
8.694818,1.124963,-51.12096,0.8,0.8,0.8
10.01087,1.124963,-51.12096,0.8,0.8,0.8
13.22555,6.749458,-5.281354,0.8,0.8,0.8
19.15577,6.8889,-5.281356,0.8,0.8,0.8
10.66684,2.834595,-44.94028,0.8,0.8,0.8
10.88157,2.633942,-47.05666,0.8,0.8,0.8
10.70054,2.43259,-49.08446,0.8,0.8,0.8
10.88157,2.313541,-50.35312,0.8,0.8,0.8
7.053406,7.124231,-30.79393,0.08162404,0.1328682,0.02721176
10.45448,4.476157,-45.23909,0.8,0.8,0.8
10.88157,4.14292,-47.05666,0.8,0.8,0.8
10.70054,3.740215,-49.08446,0.8,0.8,0.8
10.88157,3.502114,-50.35312,0.8,0.8,0.8
10.66684,6.25386,-44.94028,0.8,0.8,0.8
10.70054,5.576588,-47.27114,0.8,0.8,0.8
10.70054,5.047844,-49.08446,0.8,0.8,0.8
10.45448,4.550738,-50.72976,0.8,0.8,0.8
10.66684,7.963493,-44.94028,0.8,0.8,0.8
10.88157,7.160876,-47.05665,0.8,0.8,0.8
10.70054,6.355472,-49.08446,0.8,0.8,0.8
10.70054,5.800169,-50.51276,0.8,0.8,0.8
10.21345,8.206604,-47.84825,0.8,0.8,0.8
10.70054,7.663099,-49.08446,0.8,0.8,0.8
10.88157,7.067845,-50.35312,0.8,0.8,0.8
10.70054,8.137776,-50.51276,0.8,0.8,0.8
2.41922,0.1249619,-50.24471,1,1,1
3.389517,0.1249616,-50.48663,1,1,1
3.898341,0.2308085,-51.70436,1,1,1
4.023926,0.3700194,-53.1704,1,1,1
8.815529,0.0552434,-51.12096,0.8,0.8,0.8
10.15109,0.02293264,-51.12096,0.8,0.8,0.8
10.03209,1.124966,-19.71111,1,1,1
13.92275,1.124962,-21.08558,1,1,1
10.70054,1.124963,-45.11176,0.8,0.8,0.8
9.326277,1.124963,-49.05306,0.8,0.8,0.8
8.815532,1.124963,-51.12096,0.8,0.8,0.8
10.15109,1.124963,-51.12096,0.8,0.8,0.8
13.62984,6.758949,-5.281354,0.8,0.8,0.8
19.53355,6.8879,-5.424335,0.8,0.8,0.8
10.70054,2.823355,-45.11175,0.8,0.8,0.8
10.70054,2.5967,-47.44769,0.8,0.8,0.8
10.72084,2.42589,-49.21324,0.8,0.8,0.8
10.88157,2.306299,-50.48579,0.8,0.8,0.8
6.798552,6.745409,-32.68018,0.08162404,0.1328682,0.02721176
10.55197,4.474585,-45.31775,0.8,0.8,0.8
10.70054,4.068437,-47.44769,0.8,0.8,0.8
10.72084,3.726788,-49.21324,0.8,0.8,0.8
10.88157,3.487626,-50.48579,0.8,0.8,0.8
7.035538,9.849517,-31.72966,0.08162404,0.1328682,0.02721176
10.70054,6.220142,-45.11175,0.8,0.8,0.8
10.70054,5.540174,-47.44769,0.8,0.8,0.8
10.70054,5.020328,-49.23357,0.8,0.8,0.8
10.45448,4.529858,-50.85716,0.8,0.8,0.8
10.70054,7.918535,-45.11175,0.8,0.8,0.8
10.70054,7.011913,-47.44769,0.8,0.8,0.8
10.70054,6.318782,-49.23357,0.8,0.8,0.8
10.70054,5.771677,-50.6432,0.8,0.8,0.8
10.3581,8.248153,-47.84772,0.8,0.8,0.8
10.70054,7.617239,-49.23357,0.8,0.8,0.8
10.88157,7.031622,-50.48579,0.8,0.8,0.8
10.70054,8.095035,-50.6432,0.8,0.8,0.8
2.486901,0.1249619,-50.26022,1,1,1
3.455485,0.1249616,-50.5089,1,1,1
3.901622,0.2430539,-51.84267,1,1,1
4.043238,0.3751941,-53.24329,1,1,1
8.937847,0.04790398,-51.12096,0.8,0.8,0.8
10.29349,0.01419113,-51.12096,0.8,0.8,0.8
9.977669,1.124963,-21.08558,1,1,1
14.22906,1.124963,-21.08558,1,1,1
10.70054,1.124963,-45.32635,0.8,0.8,0.8
9.457461,1.124963,-49.05306,0.8,0.8,0.8
8.937847,1.124963,-51.12096,0.8,0.8,0.8
10.29349,1.124963,-51.12096,0.8,0.8,0.8
14.03551,6.768744,-5.281354,0.8,0.8,0.8
10.70054,2.807115,-45.32635,0.8,0.8,0.8
10.70054,2.584829,-47.62129,0.8,0.8,0.8
10.86995,2.434847,-49.21324,0.8,0.8,0.8
10.88157,2.299195,-50.61678,0.8,0.8,0.8
7.21143,6.924496,-31.85938,0.08162404,0.1328682,0.02721176
10.65385,4.474585,-45.39015,0.8,0.8,0.8
10.70054,4.044697,-47.62129,0.8,0.8,0.8
10.86995,3.744737,-49.21324,0.8,0.8,0.8
10.88157,3.473427,-50.61678,0.8,0.8,0.8
7.493857,10.16496,-30.75941,0.08162404,0.1328682,0.02721176
10.70054,6.17142,-45.32635,0.8,0.8,0.8
10.70054,5.504565,-47.62129,0.8,0.8,0.8
10.70054,4.993381,-49.38051,0.8,0.8,0.8
10.45448,4.509396,-50.98294,0.8,0.8,0.8
10.70054,7.853571,-45.32635,0.8,0.8,0.8
10.70054,6.964434,-47.6213,0.8,0.8,0.8
10.79313,6.327489,-49.2891,0.8,0.8,0.8
10.70054,5.743752,-50.77198,0.8,0.8,0.8
10.45448,8.256449,-47.9047,0.8,0.8,0.8
10.79313,7.628111,-49.2891,0.8,0.8,0.8
10.70054,6.89845,-50.77198,0.8,0.8,0.8
10.70054,8.053145,-50.77198,0.8,0.8,0.8
2.55446,0.1249619,-50.27625,1,1,1
3.521284,0.1249616,-50.5317,1,1,1
3.904804,0.2549286,-51.97729,1,1,1
4.081347,0.3767681,-53.28415,1,1,1
9.061941,0.04039883,-51.12096,0.8,0.8,0.8
10.43827,0.00524151,-51.12096,0.8,0.8,0.8
9.946205,1.124963,-22.29961,1,1,1
10.70054,1.124963,-45.53692,0.8,0.8,0.8
9.590276,1.124963,-49.05306,0.8,0.8,0.8
9.061943,1.124963,-51.12096,0.8,0.8,0.8
10.43827,1.124963,-51.12096,0.8,0.8,0.8
14.44263,6.778855,-5.281355,0.8,0.8,0.8
10.70054,2.791262,-45.53692,0.8,0.8,0.8
10.70054,2.57322,-47.79216,0.8,0.8,0.8
10.86709,2.425572,-49.36331,0.8,0.8,0.8
10.70054,2.272818,-50.89927,0.8,0.8,0.8
7.269709,6.816742,-32.42976,0.08162404,0.1328682,0.02721176
10.70054,4.457561,-45.53692,0.8,0.8,0.8
10.70054,4.021477,-47.79216,0.8,0.8,0.8
10.88157,3.729647,-49.34921,0.8,0.8,0.8
10.70054,3.420673,-50.89927,0.8,0.8,0.8
10.70054,6.12386,-45.53692,0.8,0.8,0.8
10.70054,5.469735,-47.79216,0.8,0.8,0.8
10.70054,4.966991,-49.52547,0.8,0.8,0.8
10.45448,4.489341,-51.10726,0.8,0.8,0.8
10.70054,7.790159,-45.53692,0.8,0.8,0.8
10.70054,6.917993,-47.79216,0.8,0.8,0.8
10.88157,6.334332,-49.34921,0.8,0.8,0.8
10.70054,5.716383,-50.89927,0.8,0.8,0.8
10.45448,8.199734,-48.0716,0.8,0.8,0.8
10.88157,7.636679,-49.34921,0.8,0.8,0.8
10.70054,6.864237,-50.89927,0.8,0.8,0.8
10.70054,8.012091,-50.89926,0.8,0.8,0.8
2.621894,0.1249619,-50.29305,1,1,1
3.586912,0.1249616,-50.55523,1,1,1
3.907891,0.2664485,-52.1086,1,1,1
4.127744,0.3767681,-53.31152,1,1,1
7.933788,0.05959006,-51.05884,0.8,0.8,0.8
9.188104,0.03269792,-51.12096,0.8,0.8,0.8
10.54439,0.0004673849,-51.15546,0.8,0.8,0.8
10.58881,1.124963,-20.96989,1,1,1
10.70054,1.124963,-45.74383,0.8,0.8,0.8
9.724966,1.124963,-49.05306,0.8,0.8,0.8
9.188105,1.124963,-51.12096,0.8,0.8,0.8
10.58579,1.124967,-51.12096,0.8,0.8,0.8
14.8513,6.78931,-5.281355,0.8,0.8,0.8
10.70054,2.775785,-45.74382,0.8,0.8,0.8
10.70054,2.561861,-47.96059,0.8,0.8,0.8
10.88157,2.41855,-49.49493,0.8,0.8,0.8
10.70054,2.266111,-51.02533,0.8,0.8,0.8
7.46119,6.816415,-32.48148,0.08162404,0.1328682,0.02721176
10.70054,4.426608,-45.74382,0.8,0.8,0.8
10.70054,3.998763,-47.96059,0.8,0.8,0.8
10.88157,3.712125,-49.49493,0.8,0.8,0.8
10.70054,3.407259,-51.02533,0.8,0.8,0.8
10.70054,6.07743,-45.74382,0.8,0.8,0.8
10.70054,5.435662,-47.96059,0.8,0.8,0.8
10.70054,4.941143,-49.66875,0.8,0.8,0.8
10.46979,4.474585,-51.21763,0.8,0.8,0.8
10.70054,7.728252,-45.74382,0.8,0.8,0.8
10.70054,6.872564,-47.96059,0.8,0.8,0.8
10.88157,6.299285,-49.49493,0.8,0.8,0.8
10.70054,5.689556,-51.02533,0.8,0.8,0.8
10.53351,8.197319,-48.14764,0.8,0.8,0.8
10.88157,7.592872,-49.49493,0.8,0.8,0.8
10.70054,6.830706,-51.02532,0.8,0.8,0.8
10.0554,8.297163,-50.28821,0.8,0.8,0.8
10.70054,7.971853,-51.02533,0.8,0.8,0.8
2.689201,0.1249619,-50.30997,1,1,1
3.652364,0.1249616,-50.57889,1,1,1
3.910887,0.2776294,-52.23614,1,1,1
4.173942,0.3767681,-53.33889,1,1,1
7.988256,0.06057129,-51.12096,0.8,0.8,0.8
9.315739,0.02487224,-51.12096,0.8,0.8,0.8
10.54439,0.006944951,-51.27787,0.8,0.8,0.8
10.88109,1.124963,-20.96989,1,1,1
16.48919,1.124961,-17.67211,1,1,1
8.368134,1.124963,-48.99708,0.8,0.8,0.8
9.861021,1.124963,-49.05306,0.8,0.8,0.8
9.315741,1.124963,-51.12096,0.8,0.8,0.8
10.70054,1.124962,-51.14957,0.8,0.8,0.8
15.26142,6.800046,-5.281355,0.8,0.8,0.8
10.70054,2.760674,-45.94657,0.8,0.8,0.8
10.70054,2.550753,-48.12606,0.8,0.8,0.8
10.88157,2.409962,-49.63835,0.8,0.8,0.8
10.70054,2.259538,-51.14957,0.8,0.8,0.8
7.729224,6.873309,-32.25863,0.08162404,0.1328682,0.02721176
10.70054,4.39638,-45.94657,0.8,0.8,0.8
10.70054,3.976539,-48.12606,0.8,0.8,0.8
10.88157,3.69496,-49.63835,0.8,0.8,0.8
10.70054,3.394113,-51.14957,0.8,0.8,0.8
8.126047,10.19017,-30.83738,0.08162404,0.1328682,0.02721176
10.70054,6.032091,-45.94657,0.8,0.8,0.8
10.70054,5.402328,-48.12606,0.8,0.8,0.8
10.70054,4.915824,-49.80976,0.8,0.8,0.8
10.53045,4.474585,-51.28933,0.8,0.8,0.8
10.70054,7.667797,-45.94657,0.8,0.8,0.8
10.70054,6.828116,-48.12606,0.8,0.8,0.8
10.88157,6.264956,-49.63836,0.8,0.8,0.8
10.70054,5.663263,-51.14957,0.8,0.8,0.8
10.61561,8.197318,-48.21985,0.8,0.8,0.8
10.88157,7.549959,-49.63835,0.8,0.8,0.8
10.70054,6.797839,-51.14957,0.8,0.8,0.8
10.0554,8.249578,-50.42062,0.8,0.8,0.8
10.70054,7.932413,-51.14957,0.8,0.8,0.8
2.756376,0.1249619,-50.32738,1,1,1
3.717638,0.1249614,-50.60302,1,1,1
3.959725,0.2786682,-52.27144,1,1,1
4.219935,0.3767681,-53.36659,1,1,1
8.099585,0.05396729,-51.12096,0.8,0.8,0.8
9.445259,0.01687526,-51.12096,0.8,0.8,0.8
10.54439,0.01329451,-51.39888,0.8,0.8,0.8
11.17449,1.124963,-20.96989,1,1,1
16.40697,1.124961,-18.73328,1,1,1
8.445194,1.124963,-49.05306,0.8,0.8,0.8
9.998796,1.124963,-49.05306,0.8,0.8,0.8
9.445259,1.124963,-51.12096,0.8,0.8,0.8
10.70054,1.124963,-51.27239,0.8,0.8,0.8
15.67311,6.8111,-5.281355,0.8,0.8,0.8
10.76788,2.756123,-46.05882,0.8,0.8,0.8
10.70054,2.539878,-48.28898,0.8,0.8,0.8
10.88157,2.401554,-49.77988,0.8,0.8,0.8
10.70054,2.253094,-51.27239,0.8,0.8,0.8
7.955791,6.89761,-32.19486,0.08162404,0.1328682,0.02721176
10.70054,4.366858,-46.14563,0.8,0.8,0.8
10.70054,3.954794,-48.28897,0.8,0.8,0.8
10.88157,3.678144,-49.77988,0.8,0.8,0.8
10.70054,3.381226,-51.2724,0.8,0.8,0.8
10.76789,6.018412,-46.05882,0.8,0.8,0.8
10.70054,5.36971,-48.28897,0.8,0.8,0.8
10.70054,4.891022,-49.94891,0.8,0.8,0.8
10.5906,4.474585,-51.36145,0.8,0.8,0.8
10.76788,7.649559,-46.05882,0.8,0.8,0.8
10.70054,6.784626,-48.28898,0.8,0.8,0.8
10.88157,6.231326,-49.77988,0.8,0.8,0.8
10.70054,5.637489,-51.27239,0.8,0.8,0.8
10.69718,8.197317,-48.29264,0.8,0.8,0.8
10.88157,7.507915,-49.77988,0.8,0.8,0.8
10.70054,6.765621,-51.27239,0.8,0.8,0.8
10.0554,8.202962,-50.55128,0.8,0.8,0.8
10.70054,7.893752,-51.27239,0.8,0.8,0.8
2.823417,0.1249616,-50.34566,1,1,1
3.782732,0.1249616,-50.628,1,1,1
3.91662,0.2990272,-52.48188,1,1,1
4.265723,0.3767681,-53.39501,1,1,1
8.212702,0.0471761,-51.12096,0.8,0.8,0.8
9.577148,0.008652276,-51.12096,0.8,0.8,0.8
10.54439,0.01951868,-51.51891,0.8,0.8,0.8
11.46917,1.124963,-20.96989,1,1,1
16.31318,1.124963,-19.78559,1,1,1
8.566656,1.124963,-49.05306,0.8,0.8,0.8
10.1387,1.124963,-49.05306,0.8,0.8,0.8
9.577148,1.124963,-51.12096,0.8,0.8,0.8
10.70054,1.124961,-51.39422,0.8,0.8,0.8
16.08656,6.822522,-5.281355,0.8,0.8,0.8
10.88157,2.75867,-46.11147,0.8,0.8,0.8
10.70054,2.529237,-48.44982,0.8,0.8,0.8
10.88157,2.393317,-49.91996,0.8,0.8,0.8
10.70054,2.246778,-51.39422,0.8,0.8,0.8
9.254246,7.680319,-28.49557,0.08162404,0.1328682,0.02721176
10.70054,4.33802,-46.34151,0.8,0.8,0.8
10.70054,3.933514,-48.44982,0.8,0.8,0.8
10.88157,3.661671,-49.91996,0.8,0.8,0.8
10.70054,3.368593,-51.39422,0.8,0.8,0.8
8.85821,10.53719,-29.84119,0.08162404,0.1328682,0.02721176
10.88157,6.026086,-46.11147,0.8,0.8,0.8
10.70054,5.33779,-48.44982,0.8,0.8,0.8
10.70054,4.866723,-50.08664,0.8,0.8,0.8
10.65023,4.474585,-51.43439,0.8,0.8,0.8
10.0554,8.179714,-44.51339,0.8,0.8,0.8
10.88157,7.659794,-46.11147,0.8,0.8,0.8
10.70054,6.742064,-48.44982,0.8,0.8,0.8
10.88157,6.198382,-49.91996,0.8,0.8,0.8
10.70054,5.612223,-51.39422,0.8,0.8,0.8
10.70054,8.146341,-48.44982,0.8,0.8,0.8
10.88157,7.466735,-49.91996,0.8,0.8,0.8
10.70054,6.734039,-51.39422,0.8,0.8,0.8
10.06489,8.163934,-50.6719,0.8,0.8,0.8
10.70054,7.855851,-51.39422,0.8,0.8,0.8
2.89032,0.1249619,-50.36406,1,1,1
3.847641,0.1249616,-50.65309,1,1,1
3.924678,0.3081646,-52.59006,1,1,1
4.311301,0.3767681,-53.42341,1,1,1
8.32696,0.04028486,-51.12096,0.8,0.8,0.8
9.710653,0.000292333,-51.12096,0.8,0.8,0.8
10.54439,0.02562026,-51.63726,0.8,0.8,0.8
11.73001,1.124962,-21.08558,1,1,1
8.689169,1.124963,-49.05306,0.8,0.8,0.8
8.368134,1.124963,-51.07737,0.8,0.8,0.8
9.710653,1.124963,-51.12096,0.8,0.8,0.8
10.70054,1.124962,-51.51434,0.8,0.8,0.8
16.50159,6.834231,-5.281355,0.8,0.8,0.8
10.88157,2.744344,-46.30682,0.8,0.8,0.8
10.70054,2.518822,-48.6079,0.8,0.8,0.8
10.88157,2.38525,-50.05789,0.8,0.8,0.8
10.70054,2.240586,-51.51434,0.8,0.8,0.8
8.545803,7.038359,-31.63219,0.08162404,0.1328682,0.02721176
10.70054,4.309843,-46.53358,0.8,0.8,0.8
10.70054,3.912686,-48.6079,0.8,0.8,0.8
10.88157,3.645531,-50.05789,0.8,0.8,0.8
10.70054,3.356208,-51.51434,0.8,0.8,0.8
9.057886,10.52657,-29.9361,0.08162404,0.1328682,0.02721176
10.88157,5.983108,-46.30682,0.8,0.8,0.8
10.70054,5.306547,-48.6079,0.8,0.8,0.8
10.70054,4.842916,-50.22224,0.8,0.8,0.8
10.70054,4.471831,-51.51434,0.8,0.8,0.8
10.1932,8.200789,-44.53655,0.8,0.8,0.8
10.88157,7.602488,-46.30682,0.8,0.8,0.8
10.70054,6.700409,-48.6079,0.8,0.8,0.8
10.88157,6.166099,-50.05789,0.8,0.8,0.8
10.70054,5.587454,-51.51434,0.8,0.8,0.8
10.70054,8.094271,-48.6079,0.8,0.8,0.8
10.88157,7.426382,-50.05789,0.8,0.8,0.8
10.70054,6.703078,-51.51434,0.8,0.8,0.8
10.17475,8.195489,-50.69961,0.8,0.8,0.8
10.70054,7.818701,-51.51434,0.8,0.8,0.8
2.957082,0.1249616,-50.3829,1,1,1
3.89658,0.1289954,-50.71594,1,1,1
3.933403,0.31689,-52.69425,1,1,1
4.356671,0.3767684,-53.45209,1,1,1
8.44268,0.03325348,-51.12096,0.8,0.8,0.8
10.54439,0.03160188,-51.75425,0.8,0.8,0.8
12.02611,1.124962,-21.08558,1,1,1
8.813005,1.124963,-49.05306,0.8,0.8,0.8
8.442682,1.124963,-51.12096,0.8,0.8,0.8
9.846172,1.124963,-51.12096,0.8,0.8,0.8
10.70054,1.124962,-51.63309,0.8,0.8,0.8
16.91834,6.846262,-5.281354,0.8,0.8,0.8
10.88157,2.730342,-46.49872,0.8,0.8,0.8
10.70054,2.508631,-48.76361,0.8,0.8,0.8
10.88157,2.377346,-50.19403,0.8,0.8,0.8
10.70054,2.234515,-51.63309,0.8,0.8,0.8
8.612583,6.95002,-32.11293,0.08162404,0.1328682,0.02721176
10.70054,4.282309,-46.72226,0.8,0.8,0.8
10.70054,3.892298,-48.76361,0.8,0.8,0.8
10.88157,3.629715,-50.19403,0.8,0.8,0.8
10.70054,3.344068,-51.63309,0.8,0.8,0.8
9.287461,10.54722,-29.93274,0.08162404,0.1328682,0.02721176
10.88157,5.941112,-46.49872,0.8,0.8,0.8
10.70054,5.275967,-48.76361,0.8,0.8,0.8
10.70054,4.819587,-50.35609,0.8,0.8,0.8
10.70054,4.45362,-51.63309,0.8,0.8,0.8
10.37756,8.253744,-44.49179,0.8,0.8,0.8
10.88157,7.546489,-46.49872,0.8,0.8,0.8
10.70054,6.659634,-48.76361,0.8,0.8,0.8
10.88157,6.13447,-50.19403,0.8,0.8,0.8
10.70054,5.563173,-51.63309,0.8,0.8,0.8
10.70054,8.043303,-48.76361,0.8,0.8,0.8
10.88157,7.386845,-50.19403,0.8,0.8,0.8
10.70054,6.672727,-51.63309,0.8,0.8,0.8
10.28475,8.227083,-50.72834,0.8,0.8,0.8
10.70054,7.782279,-51.63309,0.8,0.8,0.8
3.023701,0.1249616,-50.40223,1,1,1
3.89658,0.1451564,-50.89099,1,1,1
3.941912,0.3253989,-52.7963,1,1,1
4.401829,0.3767684,-53.48112,1,1,1
8.559969,0.02607043,-51.12096,0.8,0.8,0.8
10.54439,0.03746624,-51.87001,0.8,0.8,0.8
12.32349,1.124963,-21.08558,1,1,1
16.37155,1.124963,-21.93917,1,1,1
8.938255,1.124963,-49.05306,0.8,0.8,0.8
8.559971,1.124963,-51.12096,0.8,0.8,0.8
9.983833,1.124963,-51.12096,0.8,0.8,0.8
10.70054,1.124963,-51.75058,0.8,0.8,0.8
17.33689,6.858633,-5.281355,0.8,0.8,0.8
10.88157,2.716659,-46.68734,0.8,0.8,0.8
10.70054,2.498652,-48.91708,0.8,0.8,0.8
10.88157,2.369594,-50.32849,0.8,0.8,0.8
10.70054,2.228564,-51.75059,0.8,0.8,0.8
8.814779,6.955422,-32.14643,0.08162404,0.1328682,0.02721176
10.70054,4.2554,-46.90772,0.8,0.8,0.8
10.70054,3.872341,-48.91708,0.8,0.8,0.8
10.88157,3.614219,-50.32849,0.8,0.8,0.8
10.70054,3.332166,-51.75059,0.8,0.8,0.8
10.70054,5.820619,-46.90772,0.8,0.8,0.8
10.70054,5.246028,-48.91708,0.8,0.8,0.8
10.70054,4.796729,-50.4883,0.8,0.8,0.8
10.70054,4.435768,-51.75059,0.8,0.8,0.8
10.45448,8.232908,-44.60799,0.8,0.8,0.8
10.88157,7.491758,-46.68734,0.8,0.8,0.8
10.70054,6.619718,-48.91708,0.8,0.8,0.8
10.88157,6.103475,-50.32849,0.8,0.8,0.8
10.70054,5.539368,-51.75058,0.8,0.8,0.8
10.70054,7.993405,-48.91708,0.8,0.8,0.8
10.88157,7.348107,-50.32849,0.8,0.8,0.8
10.70054,6.642971,-51.75058,0.8,0.8,0.8
10.39487,8.258715,-50.75813,0.8,0.8,0.8
10.70054,7.746572,-51.75058,0.8,0.8,0.8
3.090172,0.1249616,-50.42199,1,1,1
3.89658,0.1607549,-51.06036,1,1,1
3.950212,0.3336987,-52.89622,1,1,1
4.446771,0.3767681,-53.51043,1,1,1
8.678807,0.01873903,-51.12096,0.8,0.8,0.8
10.54439,0.04321547,-51.98449,0.8,0.8,0.8
12.62215,1.124964,-21.08558,1,1,1
10.56042,1.124963,-44.68094,0.8,0.8,0.8
9.064903,1.124963,-49.05306,0.8,0.8,0.8
8.678807,1.124963,-51.12096,0.8,0.8,0.8
10.12363,1.124963,-51.12096,0.8,0.8,0.8
10.70054,1.124962,-51.86678,0.8,0.8,0.8
17.75726,6.871332,-5.281355,0.8,0.8,0.8
10.56042,2.901814,-44.68093,0.8,0.8,0.8
10.88157,2.703284,-46.87273,0.8,0.8,0.8
10.70054,2.488881,-49.0683,0.8,0.8,0.8
10.88157,2.361998,-50.46125,0.8,0.8,0.8
10.70054,2.22273,-51.86678,0.8,0.8,0.8
10.45448,4.643016,-44.83393,0.8,0.8,0.8
10.70054,4.229093,-47.09,0.8,0.8,0.8
10.70054,3.8528,-49.0683,0.8,0.8,0.8
10.88157,3.599032,-50.46125,0.8,0.8,0.8
10.70054,3.320497,-51.86678,0.8,0.8,0.8
10.56042,6.455517,-44.68094,0.8,0.8,0.8
10.70054,5.781161,-47.09,0.8,0.8,0.8
10.70054,5.216719,-49.0683,0.8,0.8,0.8
10.70054,4.774328,-50.61882,0.8,0.8,0.8
10.70054,4.418264,-51.86678,0.8,0.8,0.8
10.50834,8.197318,-44.75615,0.8,0.8,0.8
10.88157,7.438257,-46.87273,0.8,0.8,0.8
10.70054,6.580636,-49.0683,0.8,0.8,0.8
10.88157,6.073102,-50.46125,0.8,0.8,0.8
10.70054,5.516031,-51.86678,0.8,0.8,0.8
10.70054,7.944556,-49.0683,0.8,0.8,0.8
10.88157,7.310139,-50.46125,0.8,0.8,0.8
10.70054,6.613799,-51.86678,0.8,0.8,0.8
10.45448,8.255856,-50.833,0.8,0.8,0.8
10.70054,7.711567,-51.86678,0.8,0.8,0.8
3.156492,0.1249619,-50.44233,1,1,1
3.896581,0.1758194,-51.2245,1,1,1
3.95831,0.3417964,-52.99423,1,1,1
4.491497,0.3767684,-53.54016,1,1,1
8.799369,0.01123887,-51.12096,0.8,0.8,0.8
10.54439,0.04885203,-52.09785,0.8,0.8,0.8
12.96066,1.124963,-20.96989,1,1,1
10.56042,1.124963,-44.9047,0.8,0.8,0.8
9.193095,1.124963,-49.05306,0.8,0.8,0.8
8.799371,1.124963,-51.12096,0.8,0.8,0.8
10.26579,1.124963,-51.12096,0.8,0.8,0.8
10.70054,1.124963,-51.98184,0.8,0.8,0.8
18.17955,6.884384,-5.281355,0.8,0.8,0.8
10.56042,2.88412,-44.9047,0.8,0.8,0.8
10.88157,2.690208,-47.05511,0.8,0.8,0.8
10.70477,2.47985,-49.21324,0.8,0.8,0.8
10.88157,2.354556,-50.59249,0.8,0.8,0.8
10.70054,2.21701,-51.98185,0.8,0.8,0.8
10.45448,4.607984,-45.05544,0.8,0.8,0.8
10.70054,4.203376,-47.26932,0.8,0.8,0.8
10.70477,3.83473,-49.21324,0.8,0.8,0.8
10.88157,3.584149,-50.5925,0.8,0.8,0.8
10.70054,3.309057,-51.98184,0.8,0.8,0.8
10.56042,6.402434,-44.9047,0.8,0.8,0.8
10.70054,5.742583,-47.26932,0.8,0.8,0.8
10.70054,5.188017,-49.21747,0.8,0.8,0.8
10.70054,4.752372,-50.74786,0.8,0.8,0.8
10.70054,4.401104,-51.98185,0.8,0.8,0.8
10.56042,8.161592,-44.9047,0.8,0.8,0.8
10.88157,7.385952,-47.05511,0.8,0.8,0.8
10.70054,6.542369,-49.21747,0.8,0.8,0.8
10.88157,6.043335,-50.59249,0.8,0.8,0.8
10.70054,5.493152,-51.98185,0.8,0.8,0.8
10.70054,7.896723,-49.21747,0.8,0.8,0.8
10.88157,7.272929,-50.59249,0.8,0.8,0.8
10.70054,6.585198,-51.98185,0.8,0.8,0.8
10.45448,8.212957,-50.95901,0.8,0.8,0.8
10.70054,7.677246,-51.98184,0.8,0.8,0.8
10.0554,8.308411,-52.46111,0.8,0.8,0.8
3.222661,0.1249616,-50.46305,1,1,1
3.896581,0.1903753,-51.38347,1,1,1
3.966213,0.349699,-53.0902,1,1,1
4.536006,0.3767684,-53.57013,1,1,1
8.921533,0.003587609,-51.12096,0.8,0.8,0.8
10.54439,0.0543785,-52.20996,0.8,0.8,0.8
13.26295,1.124966,-20.96989,1,1,1
10.69143,1.124963,-44.94028,0.8,0.8,0.8
9.32273,1.124963,-49.05306,0.8,0.8,0.8
8.921535,1.124963,-51.12096,0.8,0.8,0.8
10.41017,1.124963,-51.12096,0.8,0.8,0.8
10.70054,1.124964,-52.09563,0.8,0.8,0.8
18.60377,6.897768,-5.281355,0.8,0.8,0.8
10.69143,2.888469,-44.94028,0.8,0.8,0.8
10.70054,2.651595,-47.44561,0.8,0.8,0.8
10.85372,2.489194,-49.21324,0.8,0.8,0.8
10.70054,2.326928,-50.87527,0.8,0.8,0.8
10.70054,2.211402,-52.09563,0.8,0.8,0.8
10.45448,4.573809,-45.27248,0.8,0.8,0.8
10.70054,4.178229,-47.44561,0.8,0.8,0.8
10.85373,3.853437,-49.21324,0.8,0.8,0.8
10.70054,3.528893,-50.87527,0.8,0.8,0.8
10.70054,3.297841,-52.09563,0.8,0.8,0.8
10.69143,6.415483,-44.94028,0.8,0.8,0.8
10.70054,5.704861,-47.44561,0.8,0.8,0.8
10.70054,5.159913,-49.36448,0.8,0.8,0.8
10.45448,4.647938,-51.08347,0.8,0.8,0.8
10.70054,4.38428,-52.09564,0.8,0.8,0.8
10.69143,8.178985,-44.94028,0.8,0.8,0.8
10.70054,7.231495,-47.44561,0.8,0.8,0.8
10.7769,6.543283,-49.2891,0.8,0.8,0.8
10.70054,5.932823,-50.87527,0.8,0.8,0.8
10.70054,5.470719,-52.09563,0.8,0.8,0.8
10.0554,8.297918,-48.19828,0.8,0.8,0.8
10.70054,7.84988,-49.36448,0.8,0.8,0.8
10.70054,7.134788,-50.87527,0.8,0.8,0.8
10.70054,6.557158,-52.09563,0.8,0.8,0.8
10.49365,8.197318,-51.05032,0.8,0.8,0.8
10.70054,7.643597,-52.09563,0.8,0.8,0.8
10.0554,8.271519,-52.56795,0.8,0.8,0.8
3.288669,0.1249614,-50.48423,1,1,1
3.89658,0.204447,-51.5376,1,1,1
3.975641,0.3570817,-53.18138,1,1,1
10.54439,0.0597962,-52.32091,0.8,0.8,0.8
13.56665,1.124963,-20.96989,1,1,1
10.70054,1.124963,-45.14536,0.8,0.8,0.8
9.453901,1.124963,-49.05306,0.8,0.8,0.8
9.045416,1.124963,-51.12096,0.8,0.8,0.8
10.55693,1.124965,-51.12096,0.8,0.8,0.8
10.70054,1.124962,-52.20825,0.8,0.8,0.8
19.02998,6.911498,-5.281355,0.8,0.8,0.8
10.70054,2.872907,-45.14536,0.8,0.8,0.8
10.70054,2.639297,-47.61903,0.8,0.8,0.8
10.88157,2.483377,-49.3332,0.8,0.8,0.8
10.70054,2.319898,-51.00116,0.8,0.8,0.8
10.70054,2.205903,-52.20825,0.8,0.8,0.8
10.45448,4.540461,-45.48528,0.8,0.8,0.8
10.70054,4.153634,-47.61903,0.8,0.8,0.8
10.88157,3.841777,-49.3332,0.8,0.8,0.8
10.70054,3.514834,-51.00116,0.8,0.8,0.8
10.70054,3.286844,-52.20825,0.8,0.8,0.8
10.70054,6.368795,-45.14536,0.8,0.8,0.8
10.70054,5.66797,-47.61903,0.8,0.8,0.8
10.70054,5.132388,-49.50946,0.8,0.8,0.8
10.45448,4.627335,-51.20644,0.8,0.8,0.8
10.70054,4.367785,-52.20825,0.8,0.8,0.8
10.70054,8.116739,-45.14535,0.8,0.8,0.8
10.70054,7.182307,-47.61903,0.8,0.8,0.8
10.88157,6.558592,-49.3332,0.8,0.8,0.8
10.70054,5.904704,-51.00116,0.8,0.8,0.8
10.70054,5.448725,-52.20825,0.8,0.8,0.8
10.0554,8.240141,-48.36117,0.8,0.8,0.8
10.70054,7.804005,-49.50946,0.8,0.8,0.8
10.70054,7.09964,-51.00116,0.8,0.8,0.8
10.70054,6.529668,-52.20825,0.8,0.8,0.8
10.55539,8.197318,-51.12226,0.8,0.8,0.8
10.70054,7.610606,-52.20825,0.8,0.8,0.8
10.0554,8.235352,-52.67369,0.8,0.8,0.8
3.354519,0.1249616,-50.50619,1,1,1
3.89658,0.2180581,-51.68744,1,1,1
3.995196,0.3623214,-53.25391,1,1,1
10.54439,0.06510848,-52.43105,0.8,0.8,0.8
13.83073,1.124963,-21.08558,1,1,1
10.70054,1.124963,-45.35933,0.8,0.8,0.8
9.586929,1.124963,-49.05306,0.8,0.8,0.8
9.171391,1.124963,-51.12096,0.8,0.8,0.8
10.70054,1.124963,-51.12589,0.8,0.8,0.8
10.70054,1.124962,-52.32004,0.8,0.8,0.8
19.40745,6.910434,-5.424335,0.8,0.8,0.8
10.70054,2.856251,-45.35933,0.8,0.8,0.8
10.70054,2.627269,-47.78997,0.8,0.8,0.8
10.88157,2.474236,-49.47895,0.8,0.8,0.8
10.70054,2.313008,-51.12589,0.8,0.8,0.8
10.70054,2.200512,-52.32004,0.8,0.8,0.8
10.45448,4.507917,-45.69431,0.8,0.8,0.8
10.70054,4.129578,-47.78997,0.8,0.8,0.8
10.88157,3.8235,-49.47895,0.8,0.8,0.8
10.70054,3.501053,-51.12589,0.8,0.8,0.8
10.70054,3.276061,-52.32004,0.8,0.8,0.8
10.70054,6.31883,-45.35933,0.8,0.8,0.8
10.70054,5.631886,-47.78997,0.8,0.8,0.8
10.70054,5.105428,-49.65277,0.8,0.8,0.8
10.45448,4.607139,-51.32827,0.8,0.8,0.8
10.70054,4.351612,-52.32004,0.8,0.8,0.8
10.70054,8.050118,-45.35932,0.8,0.8,0.8
10.70054,7.134195,-47.78997,0.8,0.8,0.8
10.88157,6.522039,-49.47895,0.8,0.8,0.8
10.70054,5.877141,-51.12589,0.8,0.8,0.8
10.70054,5.42716,-52.32004,0.8,0.8,0.8
10.0554,8.183626,-48.52172,0.8,0.8,0.8
10.70054,7.759072,-49.65277,0.8,0.8,0.8
10.70054,7.065189,-51.12589,0.8,0.8,0.8
10.70054,6.502712,-52.32004,0.8,0.8,0.8
10.6166,8.197318,-51.19493,0.8,0.8,0.8
10.70054,7.57826,-52.32004,0.8,0.8,0.8
10.0554,8.199891,-52.77866,0.8,0.8,0.8
3.420205,0.1249619,-50.52836,1,1,1
3.898346,0.2308247,-51.82896,1,1,1
4.014405,0.3674684,-53.32534,1,1,1
7.933788,0.01981797,-51.05226,0.8,0.8,0.8
10.54439,0.07031666,-52.53984,0.8,0.8,0.8
13.69463,1.124963,-22.29961,1,1,1
10.70054,1.124963,-45.569,0.8,0.8,0.8
9.721369,1.124963,-49.05306,0.8,0.8,0.8
9.298935,1.124963,-51.12096,0.8,0.8,0.8
10.70054,1.124962,-51.24894,0.8,0.8,0.8
10.70054,1.124962,-52.43046,0.8,0.8,0.8
10.70054,2.839994,-45.569,0.8,0.8,0.8
10.70054,2.615505,-47.95797,0.8,0.8,0.8
10.88157,2.465283,-49.62251,0.8,0.8,0.8
10.70054,2.306253,-51.24894,0.8,0.8,0.8
10.70054,2.195227,-52.43046,0.8,0.8,0.8
10.45448,4.476148,-45.89912,0.8,0.8,0.8
10.70054,4.106046,-47.95797,0.8,0.8,0.8
10.88157,3.805597,-49.62251,0.8,0.8,0.8
10.70054,3.487545,-51.24894,0.8,0.8,0.8
10.70054,3.265491,-52.43046,0.8,0.8,0.8
10.70054,6.270056,-45.569,0.8,0.8,0.8
10.70054,5.596588,-47.95797,0.8,0.8,0.8
10.70054,5.07902,-49.79391,0.8,0.8,0.8
10.45448,4.587343,-51.44846,0.8,0.8,0.8
10.70054,4.335756,-52.43046,0.8,0.8,0.8
10.70054,7.985087,-45.569,0.8,0.8,0.8
10.70054,7.08713,-47.95797,0.8,0.8,0.8
10.88157,6.486233,-49.62251,0.8,0.8,0.8
10.70054,5.850127,-51.24894,0.8,0.8,0.8
10.70054,5.40602,-52.43046,0.8,0.8,0.8
10.13571,8.184274,-48.58967,0.8,0.8,0.8
10.70054,7.71506,-49.79391,0.8,0.8,0.8
10.70054,7.031418,-51.24894,0.8,0.8,0.8
10.70054,6.476286,-52.43046,0.8,0.8,0.8
10.6773,8.197318,-51.26778,0.8,0.8,0.8
10.70054,7.546549,-52.43046,0.8,0.8,0.8
10.0554,8.165124,-52.88234,0.8,0.8,0.8
3.485723,0.1249616,-50.55092,1,1,1
3.901569,0.2428536,-51.96338,1,1,1
4.033278,0.3725252,-53.39584,1,1,1
7.982254,0.02165425,-51.12096,0.8,0.8,0.8
10.54439,0.07542318,-52.64748,0.8,0.8,0.8
10.70054,1.124963,-45.77469,0.8,0.8,0.8
9.857409,1.124963,-49.05306,0.8,0.8,0.8
9.428273,1.124963,-51.12096,0.8,0.8,0.8
10.70054,1.124963,-51.37051,0.8,0.8,0.8
10.70054,1.124963,-52.53973,0.8,0.8,0.8
10.70054,2.824125,-45.77468,0.8,0.8,0.8
10.70054,2.603992,-48.12326,0.8,0.8,0.8
10.88157,2.456511,-49.76408,0.8,0.8,0.8
10.70054,2.299633,-51.37051,0.8,0.8,0.8
10.70054,2.190045,-52.53973,0.8,0.8,0.8
10.54722,4.474584,-45.97742,0.8,0.8,0.8
10.70054,4.083022,-48.12326,0.8,0.8,0.8
10.88157,3.788059,-49.76408,0.8,0.8,0.8
10.70054,3.474303,-51.37051,0.8,0.8,0.8
10.70054,3.255127,-52.53973,0.8,0.8,0.8
10.70054,6.222435,-45.77469,0.8,0.8,0.8
10.70054,5.562053,-48.12326,0.8,0.8,0.8
10.70054,5.05315,-49.9331,0.8,0.8,0.8
10.45448,4.567938,-51.5672,0.8,0.8,0.8
10.70054,4.32021,-52.53973,0.8,0.8,0.8
10.70054,7.921593,-45.77468,0.8,0.8,0.8
10.70054,7.041082,-48.12326,0.8,0.8,0.8
10.88157,6.451157,-49.76408,0.8,0.8,0.8
10.70054,5.823644,-51.37051,0.8,0.8,0.8
10.70054,5.385292,-52.53973,0.8,0.8,0.8
10.2707,8.22305,-48.59728,0.8,0.8,0.8
10.70107,7.672266,-49.93261,0.8,0.8,0.8
10.70054,6.998315,-51.37052,0.8,0.8,0.8
10.70054,6.450376,-52.53973,0.8,0.8,0.8
10.70054,8.172983,-51.37051,0.8,0.8,0.8
10.70054,7.515457,-52.53973,0.8,0.8,0.8
10.12907,8.182369,-52.93407,0.8,0.8,0.8
3.551073,0.1249616,-50.57397,1,1,1
3.904696,0.254524,-52.09425,1,1,1
4.055752,0.3767681,-53.4593,1,1,1
8.093565,0.01478908,-51.12096,0.8,0.8,0.8
10.54439,0.08042981,-52.75412,0.8,0.8,0.8
16.45242,1.124957,-16.61094,1,1,1
8.368134,1.124963,-49.01635,0.8,0.8,0.8
9.995197,1.124963,-49.05306,0.8,0.8,0.8
9.55958,1.124963,-51.12096,0.8,0.8,0.8
10.70054,1.124963,-51.49076,0.8,0.8,0.8
10.70054,1.124962,-52.64796,0.8,0.8,0.8
10.70054,2.808622,-45.97661,0.8,0.8,0.8
10.70054,2.592728,-48.28604,0.8,0.8,0.8
10.88157,2.44792,-49.90384,0.8,0.8,0.8
10.70054,2.293143,-51.49076,0.8,0.8,0.8
10.70054,2.184964,-52.64796,0.8,0.8,0.8
10.64433,4.474585,-46.04988,0.8,0.8,0.8
10.70054,4.060493,-48.28604,0.8,0.8,0.8
10.88157,3.770877,-49.90384,0.8,0.8,0.8
10.70054,3.461323,-51.49076,0.8,0.8,0.8
10.70054,3.244964,-52.64796,0.8,0.8,0.8
10.70054,6.17593,-45.97662,0.8,0.8,0.8
10.70054,5.52826,-48.28604,0.8,0.8,0.8
10.70054,5.027808,-50.07051,0.8,0.8,0.8
10.45448,4.548914,-51.68464,0.8,0.8,0.8
10.70054,4.304967,-52.64796,0.8,0.8,0.8
10.70054,7.859589,-45.97661,0.8,0.8,0.8
10.70054,6.996025,-48.28604,0.8,0.8,0.8
10.88157,6.416796,-49.90384,0.8,0.8,0.8
10.70054,5.797682,-51.49076,0.8,0.8,0.8
10.70054,5.364969,-52.64796,0.8,0.8,0.8
10.40632,8.262005,-48.60598,0.8,0.8,0.8
10.77056,7.672266,-50.00605,0.8,0.8,0.8
10.70054,6.965862,-51.49076,0.8,0.8,0.8
10.70054,6.424972,-52.64796,0.8,0.8,0.8
10.70054,8.134043,-51.49076,0.8,0.8,0.8
10.70054,7.484972,-52.64796,0.8,0.8,0.8
10.21195,8.206176,-52.98011,0.8,0.8,0.8
3.616249,0.1249616,-50.59753,1,1,1
3.907731,0.2658505,-52.22174,1,1,1
4.100773,0.3767681,-53.48631,1,1,1
8.206343,0.007772397,-51.12096,0.8,0.8,0.8
10.54439,0.08533839,-52.85978,0.8,0.8,0.8
14.59229,1.124963,-22.29961,1,1,1
8.460041,1.124963,-49.05306,0.8,0.8,0.8
10.13479,1.124963,-49.05306,0.8,0.8,0.8
9.692934,1.124963,-51.12096,0.8,0.8,0.8
10.70054,1.124962,-51.60972,0.8,0.8,0.8
10.70054,1.124962,-52.75521,0.8,0.8,0.8
10.79093,2.80758,-46.05882,0.8,0.8,0.8
10.70054,2.581704,-48.4464,0.8,0.8,0.8
10.88157,2.439504,-50.04185,0.8,0.8,0.8
10.70054,2.28678,-51.60972,0.8,0.8,0.8
10.70054,2.179983,-52.75521,0.8,0.8,0.8
10.70054,4.461995,-46.17493,0.8,0.8,0.8
10.70054,4.038446,-48.4464,0.8,0.8,0.8
10.88157,3.754046,-50.04185,0.8,0.8,0.8
10.70054,3.448597,-51.60972,0.8,0.8,0.8
10.78506,3.251646,-52.69862,0.8,0.8,0.8
10.79093,6.172801,-46.05882,0.8,0.8,0.8
10.70054,5.495189,-48.44639,0.8,0.8,0.8
10.70054,5.002976,-50.2062,0.8,0.8,0.8
10.45448,4.530265,-51.80084,0.8,0.8,0.8
10.70054,4.290024,-52.75522,0.8,0.8,0.8
10.70054,7.799028,-46.17493,0.8,0.8,0.8
10.70054,6.951931,-48.4464,0.8,0.8,0.8
10.88157,6.383125,-50.04185,0.8,0.8,0.8
10.70054,5.772232,-51.60972,0.8,0.8,0.8
10.70054,5.345044,-52.75522,0.8,0.8,0.8
10.45448,8.24118,-48.71027,0.8,0.8,0.8
10.83952,7.672266,-50.08003,0.8,0.8,0.8
10.70054,6.93405,-51.60972,0.8,0.8,0.8
10.77915,6.438825,-52.70258,0.8,0.8,0.8
10.70054,8.095866,-51.60972,0.8,0.8,0.8
10.77915,7.501585,-52.70258,0.8,0.8,0.8
10.29454,8.229898,-53.0271,0.8,0.8,0.8
3.681249,0.1249616,-50.6214,1,1,1
3.947716,0.2688146,-52.27408,1,1,1
4.145593,0.3767681,-53.5135,1,1,1
8.320444,0.0006297132,-51.12096,0.8,0.8,0.8
10.54439,0.09015083,-52.96431,0.8,0.8,0.8
16.31318,1.124963,-18.71679,1,1,1
8.581291,1.124963,-49.05306,0.8,0.8,0.8
8.368134,1.124963,-51.07054,0.8,0.8,0.8
9.828172,1.124963,-51.12096,0.8,0.8,0.8
10.70054,1.124962,-51.72725,0.8,0.8,0.8
10.70054,1.124961,-52.86131,0.8,0.8,0.8
10.88157,2.806666,-46.14032,0.8,0.8,0.8
10.70054,2.570916,-48.60421,0.8,0.8,0.8
10.88157,2.431262,-50.17796,0.8,0.8,0.8
10.70054,2.280542,-51.72725,0.8,0.8,0.8
10.70054,2.175099,-52.86131,0.8,0.8,0.8
10.70054,4.432414,-46.36955,0.8,0.8,0.8
10.70054,4.016868,-48.60421,0.8,0.8,0.8
10.88157,3.737548,-50.17796,0.8,0.8,0.8
10.70054,3.436122,-51.72725,0.8,0.8,0.8
10.88157,3.260768,-52.74191,0.8,0.8,0.8
10.88157,6.170072,-46.14032,0.8,0.8,0.8
10.70054,5.462821,-48.6042,0.8,0.8,0.8
10.70054,4.978646,-50.34002,0.8,0.8,0.8
10.45448,4.511982,-51.91563,0.8,0.8,0.8
10.70054,4.275373,-52.86131,0.8,0.8,0.8
10.70054,7.739866,-46.36954,0.8,0.8,0.8
10.70054,6.908774,-48.60421,0.8,0.8,0.8
10.88157,6.350135,-50.17796,0.8,0.8,0.8
10.70054,5.747281,-51.72725,0.8,0.8,0.8
10.70054,5.325509,-52.86132,0.8,0.8,0.8
10.46757,8.197317,-48.85056,0.8,0.8,0.8
10.88157,7.656426,-50.17796,0.8,0.8,0.8
10.70054,6.902861,-51.72725,0.8,0.8,0.8
10.88157,6.464476,-52.74191,0.8,0.8,0.8
10.70054,8.058439,-51.72725,0.8,0.8,0.8
10.88157,7.532378,-52.74191,0.8,0.8,0.8
10.37682,8.253531,-53.07484,0.8,0.8,0.8
3.746069,0.1249616,-50.64586,1,1,1
3.913539,0.287528,-52.46686,1,1,1
4.190212,0.3767681,-53.54112,1,1,1
10.54439,0.094869,-53.068,0.8,0.8,0.8
8.703974,1.124963,-49.05306,0.8,0.8,0.8
8.43617,1.124963,-51.12096,0.8,0.8,0.8
9.965666,1.124963,-51.12096,0.8,0.8,0.8
10.70054,1.124962,-51.84364,0.8,0.8,0.8
10.70054,1.124962,-52.96656,0.8,0.8,0.8
10.88157,2.79197,-46.3349,0.8,0.8,0.8
10.70054,2.560354,-48.75982,0.8,0.8,0.8
10.88157,2.423181,-50.31249,0.8,0.8,0.8
10.70054,2.274427,-51.84364,0.8,0.8,0.8
10.70054,2.170311,-52.96656,0.8,0.8,0.8
10.70054,4.403511,-46.56087,0.8,0.8,0.8
10.70054,3.995745,-48.75981,0.8,0.8,0.8
10.88157,3.721385,-50.31249,0.8,0.8,0.8
10.70054,3.423891,-51.84364,0.8,0.8,0.8
10.88157,3.25103,-52.84896,0.8,0.8,0.8
10.88157,6.125984,-46.3349,0.8,0.8,0.8
10.70054,5.431137,-48.75981,0.8,0.8,0.8
10.70054,4.954803,-50.47229,0.8,0.8,0.8
10.45448,4.494058,-52.0293,0.8,0.8,0.8
10.70054,4.261008,-52.96656,0.8,0.8,0.8
10.0554,8.306844,-44.61558,0.8,0.8,0.8
10.70054,7.68206,-46.56086,0.8,0.8,0.8
10.70054,6.866529,-48.75982,0.8,0.8,0.8
10.88157,6.317809,-50.31249,0.8,0.8,0.8
10.70054,5.722819,-51.84364,0.8,0.8,0.8
10.70054,5.306357,-52.96656,0.8,0.8,0.8
10.54459,8.197318,-48.92244,0.8,0.8,0.8
10.88157,7.616021,-50.31249,0.8,0.8,0.8
10.70054,6.872284,-51.84364,0.8,0.8,0.8
10.88157,6.440132,-52.84896,0.8,0.8,0.8
10.70054,8.021748,-51.84364,0.8,0.8,0.8
10.88157,7.503165,-52.84896,0.8,0.8,0.8
10.45448,8.274136,-53.1264,0.8,0.8,0.8
3.810707,0.1249614,-50.67078,1,1,1
3.91632,0.2979059,-52.58489,1,1,1
4.234627,0.3767681,-53.56908,1,1,1
10.54439,0.09949442,-53.17075,0.8,0.8,0.8
15.50446,1.124963,-22.29961,1,1,1
8.828022,1.124963,-49.05306,0.8,0.8,0.8
8.553444,1.124963,-51.12096,0.8,0.8,0.8
10.10534,1.124963,-51.12096,0.8,0.8,0.8
10.70054,1.124962,-51.95881,0.8,0.8,0.8
10.70054,1.124962,-53.07085,0.8,0.8,0.8
10.88157,2.777607,-46.5261,0.8,0.8,0.8
10.70054,2.550014,-48.91316,0.8,0.8,0.8
10.88157,2.415258,-50.44537,0.8,0.8,0.8
10.70054,2.268431,-51.95881,0.8,0.8,0.8
10.70054,2.165617,-53.07085,0.8,0.8,0.8
10.70054,4.375266,-46.74886,0.8,0.8,0.8
10.70054,3.975067,-48.91316,0.8,0.8,0.8
10.88157,3.705545,-50.44537,0.8,0.8,0.8
10.70054,3.4119,-51.95881,0.8,0.8,0.8
10.88157,3.241483,-52.95504,0.8,0.8,0.8
10.88157,6.082903,-46.5261,0.8,0.8,0.8
10.70054,5.40012,-48.91316,0.8,0.8,0.8
10.70054,4.93144,-50.60293,0.8,0.8,0.8
10.45448,4.476485,-52.14177,0.8,0.8,0.8
10.70054,4.246926,-53.07085,0.8,0.8,0.8
10.0554,8.231518,-44.84445,0.8,0.8,0.8
10.77741,7.672266,-46.65428,0.8,0.8,0.8
10.70054,6.825174,-48.91316,0.8,0.8,0.8
10.88157,6.286129,-50.44537,0.8,0.8,0.8
10.70054,5.698837,-51.95881,0.8,0.8,0.8
10.70054,5.28758,-53.07085,0.8,0.8,0.8
10.62109,8.197319,-48.99486,0.8,0.8,0.8
10.88157,7.576416,-50.44537,0.8,0.8,0.8
10.70054,6.842305,-51.95881,0.8,0.8,0.8
10.88157,6.416264,-52.95504,0.8,0.8,0.8
10.0554,8.278925,-51.16444,0.8,0.8,0.8
10.70054,7.985775,-51.95881,0.8,0.8,0.8
10.88157,7.474524,-52.95504,0.8,0.8,0.8
10.45448,8.242032,-53.22827,0.8,0.8,0.8
3.875159,0.1249616,-50.69607,1,1,1
3.923559,0.3070459,-52.6916,1,1,1
4.278833,0.3767681,-53.59726,1,1,1
10.54439,0.003973198,-52.18713,0.8,0.8,0.8
10.54439,0.1040293,-53.2725,0.8,0.8,0.8
16.41892,1.124965,-20.85563,1,1,1
8.953403,1.124963,-49.05306,0.8,0.8,0.8
8.672225,1.124963,-51.12096,0.8,0.8,0.8
10.24717,1.124963,-51.12096,0.8,0.8,0.8
10.70054,1.124962,-52.07269,0.8,0.8,0.8
10.70054,1.124962,-53.17413,0.8,0.8,0.8
10.88157,2.76357,-46.71394,0.8,0.8,0.8
10.70054,2.539892,-49.06423,0.8,0.8,0.8
10.88157,2.407492,-50.57654,0.8,0.8,0.8
10.70054,2.262553,-52.07269,0.8,0.8,0.8
10.70054,2.161015,-53.17413,0.8,0.8,0.8
10.70054,4.34766,-46.93355,0.8,0.8,0.8
10.70054,3.954822,-49.06423,0.8,0.8,0.8
10.88157,3.690022,-50.57654,0.8,0.8,0.8
10.70054,3.400144,-52.07269,0.8,0.8,0.8
10.88157,3.232123,-53.06009,0.8,0.8,0.8
10.88157,6.04079,-46.71394,0.8,0.8,0.8
10.70054,5.369751,-49.06423,0.8,0.8,0.8
10.70054,4.908542,-50.7319,0.8,0.8,0.8
10.50254,4.474585,-52.2178,0.8,0.8,0.8
10.70054,4.23312,-53.17413,0.8,0.8,0.8
10.06295,8.163377,-45.05733,0.8,0.8,0.8
10.86973,7.672266,-46.72831,0.8,0.8,0.8
10.70054,6.78468,-49.06423,0.8,0.8,0.8
10.88157,6.255083,-50.57654,0.8,0.8,0.8
10.70054,5.675323,-52.07269,0.8,0.8,0.8
10.70054,5.269174,-53.17413,0.8,0.8,0.8
10.69707,8.197318,-49.06774,0.8,0.8,0.8
10.88157,7.537611,-50.57654,0.8,0.8,0.8
10.70054,6.812914,-52.07269,0.8,0.8,0.8
10.88157,6.392866,-53.06009,0.8,0.8,0.8
10.0554,8.235891,-51.28553,0.8,0.8,0.8
10.70054,7.950504,-52.07269,0.8,0.8,0.8
10.88157,7.446445,-53.06009,0.8,0.8,0.8
10.45448,8.21056,-53.32912,0.8,0.8,0.8
3.896581,0.1358368,-50.82182,1,1,1
3.932151,0.3156374,-52.79326,1,1,1
4.322834,0.3767684,-53.6258,1,1,1
10.54439,0.009652579,-52.29822,0.8,0.8,0.8
10.54439,0.1084747,-53.37339,0.8,0.8,0.8
9.08025,1.124963,-49.05306,0.8,0.8,0.8
8.792678,1.124963,-51.12096,0.8,0.8,0.8
10.39136,1.124963,-51.12096,0.8,0.8,0.8
10.70054,1.124963,-52.18544,0.8,0.8,0.8
10.70054,1.124962,-53.27653,0.8,0.8,0.8
10.88157,2.749848,-46.89864,0.8,0.8,0.8
10.70054,2.529981,-49.2132,0.8,0.8,0.8
10.70054,2.378675,-50.85936,0.8,0.8,0.8
10.70054,2.25679,-52.18544,0.8,0.8,0.8
10.70054,2.156504,-53.27654,0.8,0.8,0.8
10.70054,4.320673,-47.11516,0.8,0.8,0.8
10.70054,3.934999,-49.2132,0.8,0.8,0.8
10.70054,3.632389,-50.85936,0.8,0.8,0.8
10.70054,3.388616,-52.18544,0.8,0.8,0.8
10.88157,3.222949,-53.16426,0.8,0.8,0.8
10.88157,5.999624,-46.89864,0.8,0.8,0.8
10.70054,5.340015,-49.21319,0.8,0.8,0.8
10.70054,4.886101,-50.85936,0.8,0.8,0.8
10.55602,4.474585,-52.28982,0.8,0.8,0.8
10.70054,4.219587,-53.27654,0.8,0.8,0.8
10.2398,8.214173,-45.01973,0.8,0.8,0.8
10.88157,7.624515,-46.89864,0.8,0.8,0.8
10.70054,6.745034,-49.21319,0.8,0.8,0.8
10.70054,6.139814,-50.85936,0.8,0.8,0.8
10.70054,5.652272,-52.18544,0.8,0.8,0.8
10.70054,5.251129,-53.27653,0.8,0.8,0.8
10.70054,8.150051,-49.21319,0.8,0.8,0.8
10.70054,7.393528,-50.85936,0.8,0.8,0.8
10.70054,6.7841,-52.18544,0.8,0.8,0.8
10.88157,6.36993,-53.16426,0.8,0.8,0.8
10.0554,8.193715,-51.40522,0.8,0.8,0.8
10.70054,7.915927,-52.18544,0.8,0.8,0.8
10.88157,7.418921,-53.16426,0.8,0.8,0.8
10.48057,8.197318,-53.41296,0.8,0.8,0.8
3.89658,0.1516666,-50.99282,1,1,1
3.940531,0.3240178,-52.89285,1,1,1
4.366623,0.3767681,-53.65465,1,1,1
10.54439,0.01522048,-52.40818,0.8,0.8,0.8
10.54439,0.1128326,-53.4734,0.8,0.8,0.8
10.56042,1.124963,-44.77931,0.8,0.8,0.8
9.208574,1.124963,-49.05306,0.8,0.8,0.8
8.91481,1.124963,-51.12096,0.8,0.8,0.8
10.53793,1.124963,-51.12096,0.8,0.8,0.8
10.70054,1.124962,-52.29706,0.8,0.8,0.8
10.70054,1.124963,-53.37805,0.8,0.8,0.8
10.56042,2.934428,-44.77931,0.8,0.8,0.8
10.88157,2.736434,-47.08027,0.8,0.8,0.8
10.84945,2.539694,-49.21324,0.8,0.8,0.8
10.70054,2.371344,-50.98531,0.8,0.8,0.8
10.70054,2.25114,-52.29706,0.8,0.8,0.8
10.70054,2.152082,-53.37805,0.8,0.8,0.8
10.56042,4.743894,-44.77931,0.8,0.8,0.8
10.70054,4.294288,-47.29374,0.8,0.8,0.8
10.84945,3.954419,-49.21324,0.8,0.8,0.8
10.70054,3.617724,-50.98531,0.8,0.8,0.8
10.70054,3.377315,-52.29706,0.8,0.8,0.8
10.88157,3.213954,-53.26751,0.8,0.8,0.8
10.56042,6.55336,-44.77931,0.8,0.8,0.8
10.88157,5.959376,-47.08027,0.8,0.8,0.8
10.70054,5.310896,-49.36008,0.8,0.8,0.8
10.70054,4.864105,-50.98531,0.8,0.8,0.8
10.60898,4.474585,-52.36222,0.8,0.8,0.8
10.70054,4.20632,-53.37805,0.8,0.8,0.8
10.41837,8.265464,-44.98287,0.8,0.8,0.8
10.88157,7.570849,-47.08027,0.8,0.8,0.8
10.77253,6.743759,-49.2891,0.8,0.8,0.8
10.70054,6.110487,-50.98531,0.8,0.8,0.8
10.70054,5.629671,-52.29706,0.8,0.8,0.8
10.70054,5.23344,-53.37805,0.8,0.8,0.8
10.70054,8.101518,-49.36008,0.8,0.8,0.8
10.70054,7.356867,-50.98531,0.8,0.8,0.8
10.70054,6.755848,-52.29706,0.8,0.8,0.8
10.88157,6.347444,-53.26751,0.8,0.8,0.8
10.07685,8.167368,-51.5056,0.8,0.8,0.8
10.70054,7.882024,-52.29706,0.8,0.8,0.8
10.88157,7.391939,-53.26751,0.8,0.8,0.8
10.5257,8.197318,-53.48481,0.8,0.8,0.8
3.896581,0.1669517,-51.15812,1,1,1
3.948708,0.3321943,-52.99014,1,1,1
4.410197,0.3767684,-53.68353,1,1,1
10.54439,0.02067951,-52.51677,0.8,0.8,0.8
10.54439,0.1171041,-53.57227,0.8,0.8,0.8
10.60302,1.124963,-44.94028,0.8,0.8,0.8
9.338169,1.124963,-49.05306,0.8,0.8,0.8
9.038378,1.124963,-51.12096,0.8,0.8,0.8
10.68662,1.124965,-51.12096,0.8,0.8,0.8
10.70054,1.124962,-52.40728,0.8,0.8,0.8
10.70054,1.124962,-53.47841,0.8,0.8,0.8
10.60302,2.923777,-44.94028,0.8,0.8,0.8
10.70054,2.696724,-47.46911,0.8,0.8,0.8
10.85486,2.530757,-49.3546,0.8,0.8,0.8
10.70054,2.364157,-51.10951,0.8,0.8,0.8
10.70054,2.245599,-52.40728,0.8,0.8,0.8
10.70054,2.147747,-53.47841,0.8,0.8,0.8
10.60302,4.722592,-44.94028,0.8,0.8,0.8
10.70054,4.268486,-47.46911,0.8,0.8,0.8
10.88157,3.943461,-49.32862,0.8,0.8,0.8
10.70054,3.603351,-51.10951,0.8,0.8,0.8
10.70054,3.366236,-52.40728,0.8,0.8,0.8
10.88157,3.205139,-53.36961,0.8,0.8,0.8
10.60303,6.521408,-44.94028,0.8,0.8,0.8
10.70054,5.840249,-47.46911,0.8,0.8,0.8
10.70054,5.282378,-49.50466,0.8,0.8,0.8
10.70054,4.842544,-51.10951,0.8,0.8,0.8
10.66142,4.474585,-52.43471,0.8,0.8,0.8
10.70054,4.193316,-53.47841,0.8,0.8,0.8
10.45448,8.21942,-45.15,0.8,0.8,0.8
10.70054,7.41201,-47.46911,0.8,0.8,0.8
10.88157,6.761961,-49.32862,0.8,0.8,0.8
10.70054,6.081739,-51.10951,0.8,0.8,0.8
10.70054,5.60751,-52.40728,0.8,0.8,0.8
10.70054,5.216099,-53.47841,0.8,0.8,0.8
10.70054,8.053986,-49.50466,0.8,0.8,0.8
10.70054,7.320933,-51.10951,0.8,0.8,0.8
10.70054,6.728149,-52.40728,0.8,0.8,0.8
10.88157,6.325403,-53.36961,0.8,0.8,0.8
10.17647,8.195983,-51.54052,0.8,0.8,0.8
10.70054,7.848784,-52.40728,0.8,0.8,0.8
10.88157,7.365489,-53.36961,0.8,0.8,0.8
10.57031,8.197318,-53.55669,0.8,0.8,0.8
3.89658,0.1817188,-51.31853,1,1,1
3.956688,0.3401742,-53.08575,1,1,1
4.453559,0.3767684,-53.71297,1,1,1
10.54439,0.02603193,-52.62455,0.8,0.8,0.8
10.54439,0.1212912,-53.67057,0.8,0.8,0.8
10.70054,1.124963,-45.02254,0.8,0.8,0.8
9.46953,1.124963,-49.05306,0.8,0.8,0.8
9.163982,1.124963,-51.12096,0.8,0.8,0.8
10.70054,1.124963,-51.23253,0.8,0.8,0.8
10.70054,1.124962,-52.51667,0.8,0.8,0.8
10.70054,1.124963,-53.57819,0.8,0.8,0.8
10.70054,2.922647,-45.02254,0.8,0.8,0.8
10.70054,2.684107,-47.64188,0.8,0.8,0.8
10.88157,2.524746,-49.47393,0.8,0.8,0.8
10.70054,2.357112,-51.23254,0.8,0.8,0.8
10.70054,2.240168,-52.51668,0.8,0.8,0.8
10.70054,2.143497,-53.57819,0.8,0.8,0.8
10.45448,4.637654,-45.36485,0.8,0.8,0.8
10.70054,4.243252,-47.64188,0.8,0.8,0.8
10.88157,3.924524,-49.47393,0.8,0.8,0.8
10.70054,3.589262,-51.23254,0.8,0.8,0.8
10.70054,3.355372,-52.51668,0.8,0.8,0.8
10.88157,3.196495,-53.47109,0.8,0.8,0.8
10.70054,6.518015,-45.02254,0.8,0.8,0.8
10.70054,5.802397,-47.64188,0.8,0.8,0.8
10.70054,5.254442,-49.64753,0.8,0.8,0.8
10.70054,4.821414,-51.23254,0.8,0.8,0.8
10.70054,4.470578,-52.51668,0.8,0.8,0.8
10.70054,4.180568,-53.57819,0.8,0.8,0.8
10.52438,8.197319,-45.2676,0.8,0.8,0.8
10.70054,7.361541,-47.64188,0.8,0.8,0.8
10.88157,6.724087,-49.47393,0.8,0.8,0.8
10.70054,6.053562,-51.23254,0.8,0.8,0.8
10.70054,5.585783,-52.51668,0.8,0.8,0.8
10.70054,5.199102,-53.57819,0.8,0.8,0.8
10.70054,8.007432,-49.64753,0.8,0.8,0.8
10.70054,7.285711,-51.23254,0.8,0.8,0.8
10.70054,6.700989,-52.51668,0.8,0.8,0.8
10.88157,6.303796,-53.47109,0.8,0.8,0.8
10.27606,8.224587,-51.57671,0.8,0.8,0.8
10.70054,7.816195,-52.51668,0.8,0.8,0.8
10.88157,7.339562,-53.47109,0.8,0.8,0.8
10.61441,8.197318,-53.62914,0.8,0.8,0.8
3.896581,0.1959932,-51.47426,1,1,1
3.964478,0.3479638,-53.17973,1,1,1
4.496703,0.3767681,-53.74296,1,1,1
10.54439,0.03127955,-52.73151,0.8,0.8,0.8
10.54439,0.1253951,-53.76828,0.8,0.8,0.8
10.70054,1.124963,-45.23845,0.8,0.8,0.8
9.602692,1.124963,-49.05306,0.8,0.8,0.8
9.291658,1.124963,-51.12096,0.8,0.8,0.8
10.70054,1.124962,-51.3544,0.8,0.8,0.8
10.70054,1.124962,-52.62524,0.8,0.8,0.8
10.70054,1.124962,-53.67736,0.8,0.8,0.8
10.70054,2.905399,-45.23845,0.8,0.8,0.8
10.70054,2.671766,-47.81213,0.8,0.8,0.8
10.88157,2.51547,-49.61753,0.8,0.8,0.8
10.70054,2.350207,-51.3544,0.8,0.8,0.8
10.70054,2.234843,-52.62524,0.8,0.8,0.8
10.70054,2.139333,-53.67736,0.8,0.8,0.8
10.45448,4.603951,-45.57576,0.8,0.8,0.8
10.70054,4.218568,-47.81213,0.8,0.8,0.8
10.88157,3.905975,-49.61753,0.8,0.8,0.8
10.70054,3.57545,-51.3544,0.8,0.8,0.8
10.70054,3.344721,-52.62524,0.8,0.8,0.8
10.88157,3.188023,-53.57197,0.8,0.8,0.8
10.70054,6.466271,-45.23845,0.8,0.8,0.8
10.70054,5.765373,-47.81213,0.8,0.8,0.8
10.70054,5.227082,-49.78872,0.8,0.8,0.8
10.70054,4.800695,-51.3544,0.8,0.8,0.8
10.70054,4.454602,-52.62524,0.8,0.8,0.8
10.73256,4.177179,-53.65872,0.8,0.8,0.8
10.62634,8.197318,-45.34018,0.8,0.8,0.8
10.70054,7.312176,-47.81213,0.8,0.8,0.8
10.88157,6.686988,-49.61753,0.8,0.8,0.8
10.70054,6.025941,-51.3544,0.8,0.8,0.8
10.70054,5.564482,-52.62524,0.8,0.8,0.8
10.70054,5.182445,-53.67736,0.8,0.8,0.8
12.37541,10.06952,-45.91898,0.8,0.8,0.8
10.70054,7.961829,-49.78872,0.8,0.8,0.8
10.70054,7.251184,-51.3544,0.8,0.8,0.8
10.70054,6.674363,-52.62524,0.8,0.8,0.8
10.88157,6.282622,-53.57197,0.8,0.8,0.8
10.37558,8.253177,-51.61413,0.8,0.8,0.8
10.70054,7.784243,-52.62524,0.8,0.8,0.8
10.88157,7.314152,-53.57197,0.8,0.8,0.8
10.65799,8.197318,-53.70214,0.8,0.8,0.8
3.89658,0.2097979,-51.6249,1,1,1
3.972083,0.3555694,-53.27148,1,1,1
4.539627,0.3767684,-53.77283,1,1,1
10.54439,0.0364245,-52.83704,0.8,0.8,0.8
10.54439,0.1294171,-53.86477,0.8,0.8,0.8
10.70054,1.124963,-45.44983,0.8,0.8,0.8
9.73712,1.124963,-49.05306,0.8,0.8,0.8
9.420774,1.124963,-51.12096,0.8,0.8,0.8
10.70054,1.124962,-51.47448,0.8,0.8,0.8
10.70054,1.124963,-52.73235,0.8,0.8,0.8
10.70054,1.124962,-53.77531,0.8,0.8,0.8
10.70054,2.888564,-45.44983,0.8,0.8,0.8
10.70054,2.659692,-47.97927,0.8,0.8,0.8
10.88157,2.506383,-49.75882,0.8,0.8,0.8
10.70054,2.343437,-51.47448,0.8,0.8,0.8
10.70054,2.229621,-52.73235,0.8,0.8,0.8
10.70054,2.135251,-53.77531,0.8,0.8,0.8
10.45448,4.571056,-45.78224,0.8,0.8,0.8
10.70054,4.194422,-47.97928,0.8,0.8,0.8
10.88157,3.887803,-49.75882,0.8,0.8,0.8
10.70054,3.561912,-51.47448,0.8,0.8,0.8
10.75087,3.344676,-52.69862,0.8,0.8,0.8
10.88157,3.179724,-53.6716,0.8,0.8,0.8
10.70054,6.415767,-45.44983,0.8,0.8,0.8
10.70054,5.729153,-47.97927,0.8,0.8,0.8
10.70054,5.20028,-49.92762,0.8,0.8,0.8
10.70054,4.780388,-51.47448,0.8,0.8,0.8
10.70054,4.438938,-52.73235,0.8,0.8,0.8
10.77592,4.17718,-53.73213,0.8,0.8,0.8
10.70054,8.179369,-45.44983,0.8,0.8,0.8
10.70054,7.263883,-47.97928,0.8,0.8,0.8
10.88157,6.650647,-49.75881,0.8,0.8,0.8
10.70054,5.998862,-51.47448,0.8,0.8,0.8
10.70054,5.543597,-52.73236,0.8,0.8,0.8
10.70054,5.166117,-53.77531,0.8,0.8,0.8
12.41423,10.02754,-46.06929,0.8,0.8,0.8
10.70054,7.917155,-49.92762,0.8,0.8,0.8
10.70054,7.217336,-51.47448,0.8,0.8,0.8
10.74496,6.671186,-52.70258,0.8,0.8,0.8
10.88157,6.261868,-53.6716,0.8,0.8,0.8
10.45448,8.267695,-51.66835,0.8,0.8,0.8
10.70054,7.752913,-52.73235,0.8,0.8,0.8
10.88157,7.289248,-53.6716,0.8,0.8,0.8
10.70054,8.196984,-53.77531,0.8,0.8,0.8
3.89658,0.2231553,-51.77135,1,1,1
3.990129,0.3609633,-53.34426,1,1,1
10.54439,0.04146897,-52.94181,0.8,0.8,0.8
10.54439,0.1333589,-53.96074,0.8,0.8,0.8
10.70054,1.124963,-45.65748,0.8,0.8,0.8
9.873446,1.124963,-49.05306,0.8,0.8,0.8
9.552086,1.124963,-51.12096,0.8,0.8,0.8
10.70054,1.124963,-51.59348,0.8,0.8,0.8
10.70054,1.124962,-52.8387,0.8,0.8,0.8
10.70054,1.124963,-53.87272,0.8,0.8,0.8
10.70054,2.872128,-45.65748,0.8,0.8,0.8
10.70054,2.64788,-48.14407,0.8,0.8,0.8
10.88157,2.497481,-49.8985,0.8,0.8,0.8
10.70054,2.336801,-51.59348,0.8,0.8,0.8
10.70054,2.224502,-52.8387,0.8,0.8,0.8
10.70054,2.131251,-53.87272,0.8,0.8,0.8
10.45448,4.538941,-45.98508,0.8,0.8,0.8
10.70054,4.170798,-48.14407,0.8,0.8,0.8
10.88157,3.870001,-49.8985,0.8,0.8,0.8
10.70054,3.548639,-51.59348,0.8,0.8,0.8
10.88157,3.361245,-52.71917,0.8,0.8,0.8
10.88157,3.171588,-53.77068,0.8,0.8,0.8
10.70054,6.366461,-45.65748,0.8,0.8,0.8
10.70054,5.693715,-48.14407,0.8,0.8,0.8
10.70054,5.174018,-50.06496,0.8,0.8,0.8
10.70054,4.760478,-51.59348,0.8,0.8,0.8
10.70054,4.423581,-52.8387,0.8,0.8,0.8
10.81876,4.177179,-53.80609,0.8,0.8,0.8
10.70054,8.113628,-45.65747,0.8,0.8,0.8
10.70054,7.216633,-48.14407,0.8,0.8,0.8
10.88157,6.61504,-49.8985,0.8,0.8,0.8
10.70054,5.972314,-51.59348,0.8,0.8,0.8
10.70054,5.523121,-52.83871,0.8,0.8,0.8
10.70054,5.150117,-53.87272,0.8,0.8,0.8
10.0554,8.28046,-48.8531,0.8,0.8,0.8
10.70054,7.873388,-50.06496,0.8,0.8,0.8
10.70054,7.184155,-51.59348,0.8,0.8,0.8
10.88157,6.71567,-52.71917,0.8,0.8,0.8
10.88157,6.24153,-53.77068,0.8,0.8,0.8
10.45448,8.228793,-51.7846,0.8,0.8,0.8
10.70054,7.7222,-52.83871,0.8,0.8,0.8
10.88157,7.264842,-53.77068,0.8,0.8,0.8
10.70054,8.168983,-53.87272,0.8,0.8,0.8
3.899572,0.2354028,-51.9073,1,1,1
4.009049,0.3660333,-53.41409,1,1,1
10.54439,0.04641435,-53.0455,0.8,0.8,0.8
10.54439,0.1372217,-54.05582,0.8,0.8,0.8
8.368134,1.124963,-48.92179,0.8,0.8,0.8
10.01139,1.124963,-49.05306,0.8,0.8,0.8
9.685264,1.124963,-51.12096,0.8,0.8,0.8
10.70054,1.124963,-51.71106,0.8,0.8,0.8
10.70054,1.124962,-52.94395,0.8,0.8,0.8
10.70054,1.124963,-53.96924,0.8,0.8,0.8
10.70054,2.856082,-45.86117,0.8,0.8,0.8
10.70054,2.636318,-48.30621,0.8,0.8,0.8
10.88157,2.488763,-50.03627,0.8,0.8,0.8
10.70054,2.330295,-51.71106,0.8,0.8,0.8
10.70054,2.219483,-52.94395,0.8,0.8,0.8
10.70054,2.127331,-53.96924,0.8,0.8,0.8
10.45448,4.507582,-46.18406,0.8,0.8,0.8
10.70054,4.147678,-48.30622,0.8,0.8,0.8
10.88157,3.852561,-50.03627,0.8,0.8,0.8
10.70054,3.535627,-51.71106,0.8,0.8,0.8
10.88157,3.351038,-52.82623,0.8,0.8,0.8
10.88157,3.163617,-53.86886,0.8,0.8,0.8
10.70054,6.318318,-45.86117,0.8,0.8,0.8
10.70054,5.659037,-48.30622,0.8,0.8,0.8
10.70054,5.148289,-50.20041,0.8,0.8,0.8
10.70054,4.740959,-51.71106,0.8,0.8,0.8
10.70054,4.408526,-52.94395,0.8,0.8,0.8
10.86106,4.17718,-53.88023,0.8,0.8,0.8
